# .PCD v0.7 - Point Cloud Data file format
VERSION 0.7
FIELDS x y z normal_x normal_y normal_z curvature
SIZE 4 4 4 4 4 4 4
TYPE F F F F F F F
COUNT 1 1 1 1 1 1 1
WIDTH 262
HEIGHT 1
VIEWPOINT 0 0 0 1 0 0 0
POINTS 262
DATA ascii
-0.15477885 -0.51307797 -0.003728545 0.60230958 -0.67133045 -0.43190104 0
-0.11935437 -0.46775594 -0.0093608834 0.74106759 -0.48839778 0.46074557 0
-0.087138809 -0.41717336 -0.01245073 0.84019637 -0.50361043 0.2011131 0
-0.061167248 -0.35057649 -0.012156107 0.90590948 -0.27764639 0.31975061 0
-0.038467653 -0.25564295 -0.0057771574 0.97229385 -0.18582602 0.14182135 0
-0.022574877 -0.14235443 -0.0034600631 0.91974777 -0.10045537 -0.3794373 0
-0.014251367 -0.040408481 -0.010817017 0.98949343 -0.072797276 0.12491293 0
-0.013968392 0.039493579 -0.011077015 0.98822844 0.064296432 0.138818 0
-0.022068359 0.14076127 -0.0033572095 0.95155603 0.11149591 -0.28654805 0
-0.038828786 0.25723287 -0.0069410945 0.98543477 0.169211 0.016906226 0
-0.060055342 0.34729013 -0.01240489 0.91584492 0.2700772 0.29713017 0
-0.11799417 0.465462 -0.0097968783 0.77107823 0.51268262 0.37761751 0
-0.088053524 0.4180916 -0.011801369 0.8362624 0.49863675 0.22809345 0
-0.14745478 0.50621903 -0.0040975292 0.58655316 0.70863318 -0.39216641 0
-0.7169975 -0.78210849 0.097813211 0.03786736 -0.92393446 -0.38067198 0
-0.63623714 -0.76464403 0.095361307 0.15348047 -0.58751458 0.79452527 0
-0.54933965 -0.73733282 0.089410834 0.15858114 -0.29238147 0.94306153 0
-0.44979912 -0.72642851 0.073508225 0.2336804 -0.33057407 0.91439283 0
-0.36391687 -0.71287799 0.055105381 0.34607983 -0.47788259 0.80737662 0
-0.52437222 -0.68462306 0.09679798 0.1708072 -0.22072005 0.96026438 0
-0.44261205 -0.65727955 0.086723983 0.22055294 -0.22651684 0.94870782 0
-0.35172606 -0.65036035 0.064945057 0.27239338 -0.21007653 0.93897265 0
-0.26788491 -0.6339308 0.039932378 0.47845462 -0.31082997 0.82125872 0
-0.40722278 -0.58858001 0.097895764 0.27401447 -0.37377924 0.88611805 0
-0.33962098 -0.56478596 0.085440673 0.3181594 -0.35286668 0.8799203 0
-0.24833718 -0.54691148 0.054691415 0.44895181 -0.32724473 0.83147645 0
-0.18024395 -0.52812934 0.018132376 0.64967382 -0.35513976 0.67216039 0
-0.30534753 -0.49242878 0.099360287 0.3104254 -0.21911271 0.92500037 0
-0.24053375 -0.45686075 0.083139576 0.38035157 -0.22910264 0.89601606 0
-0.15306653 -0.44504732 0.037414711 0.57344103 -0.34859365 0.74138242 0
-0.092056692 -0.40950304 0.0056272373 0.74464047 -0.34644195 0.57051605 0
-0.22219136 -0.35694775 0.092148528 0.34244943 -0.0785475 0.93624717 0
-0.14725649 -0.34972188 0.058226824 0.47490889 -0.12080228 0.87170428 0
-0.083630309 -0.34416324 0.017390242 0.67704082 -0.18723489 0.71172947 0
-0.21142894 -0.25621089 0.096212968 0.33915356 -0.065663487 0.93843657 0
-0.1481465 -0.25072831 0.068637349 0.43804106 -0.073833726 0.89591771 0
-0.067831568 -0.24554369 0.022835331 0.58773547 -0.11323843 0.80108935 0
-0.20397186 -0.17375262 0.09874855 0.33879951 -0.052020553 0.93941945 0
-0.14823036 -0.14946762 0.075965218 0.42695901 -0.053034894 0.90271437 0
-0.060470581 -0.14936961 0.026839193 0.5543707 -0.055358645 0.83042675 0
-0.14700408 -0.051023252 0.079572298 0.42242292 -0.020481627 0.90616733 0
-0.057769231 -0.050910205 0.028918423 0.57258272 -0.01016735 0.81978393 0
-0.14715138 0.049133077 0.079713643 0.42250004 0.019743633 0.90614784 0
-0.057299972 0.049108949 0.028655775 0.57346904 0.0096566593 0.8191703 0
-0.2029797 0.16598186 0.098812237 0.3389807 0.050268311 0.93944937 0
-0.14840239 0.15236726 0.075754754 0.42561924 0.053356241 0.90332788 0
-0.06115438 0.15156156 0.027177688 0.5512839 0.056936771 0.83237273 0
-0.21064596 0.26079595 0.095601529 0.34550688 0.067205936 0.93600661 0
-0.14732349 0.25160596 0.068193518 0.43965462 0.074116044 0.89510369 0
-0.068730742 0.24692971 0.02332343 0.58543634 0.11293698 0.80281347 0
-0.22240634 0.35604909 0.09230648 0.34239811 0.078550182 0.93626565 0
-0.14983532 0.34913415 0.059701089 0.46931097 0.11656322 0.87530589 0
-0.082599103 0.33999911 0.017667463 0.67509675 0.18408822 0.71439201 0
-0.30640087 0.49677062 0.098682046 0.31327602 0.22116552 0.92354965 0
-0.24073154 0.45456314 0.083806209 0.37980682 0.22503787 0.89727628 0
-0.15410569 0.4447186 0.038368765 0.56675225 0.33928344 0.75078535 0
-0.092791706 0.40964621 0.0062863207 0.74671561 0.35896948 0.55996132 0
-0.40897918 0.59391135 0.096248947 0.26925671 0.36018103 0.89317989 0
-0.33720893 0.56432068 0.084783994 0.3175073 0.33947507 0.88540721 0
-0.25021842 0.54888004 0.054936815 0.43826747 0.31325677 0.84249145 0
-0.18068738 0.52697897 0.018929612 0.6609953 0.3738955 0.65060538 0
-0.52098036 0.68595612 0.095914885 0.17280836 0.21494283 0.96121633 0
-0.44432652 0.65611744 0.087344773 0.22011854 0.22827885 0.94838631 0
-0.35016915 0.65019721 0.064571254 0.27751786 0.22051381 0.93507081 0
-0.26710394 0.6317426 0.040108614 0.47674134 0.30247757 0.82536358 0
-0.7173565 0.78256446 0.098890699 0.037966218 0.92763889 -0.37154353 0
-0.63555187 0.76391363 0.09579435 0.15006118 0.48325872 0.86252105 0
-0.54990757 0.73791927 0.089450277 0.15681523 0.28333017 0.94611466 0
-0.45628351 0.72822994 0.074561842 0.22549196 0.31551066 0.92174095 0
-0.36998457 0.71291769 0.056935098 0.31495091 0.39305073 0.86389643 0
-1.2236745 -0.7509343 0.18745285 0.080721073 -0.76594812 0.63781476 0
-1.1428822 -0.7494331 0.1728643 0.13832775 -0.60254937 0.78600228 0
-1.0484573 -0.74797422 0.15748762 0.1395307 -0.56538236 0.81294155 0
-0.95022362 -0.74748069 0.14199612 0.13039972 -0.48079261 0.86708379 0
-0.85119647 -0.74828899 0.1284062 0.11968546 -0.3775433 0.91822457 0
-0.75019008 -0.74754655 0.11568135 0.12927426 -0.34119827 0.93105954 0
-0.65581334 -0.72945452 0.10716108 0.14047721 -0.22895093 0.96324849 0
-0.587928 -0.70849264 0.10173152 0.14859627 -0.22196916 0.96366429 0
-1.1048383 -0.69846433 0.19857553 0.13583545 -0.3162418 0.93890357 0
-1.0369347 -0.6798526 0.19452442 0.13882411 -0.29829273 0.94432485 0
-0.9437508 -0.65891099 0.18588445 0.15280175 -0.3544817 0.92249352 0
-0.85211962 -0.65290242 0.17185575 0.15828021 -0.39242896 0.90606117 0
-0.74884367 -0.65116221 0.153943 0.17362848 -0.40104756 0.89945203 0
-0.65005797 -0.64986628 0.13438283 0.19218923 -0.38441977 0.90293121 0
-0.55681098 -0.64296359 0.11664064 0.2023363 -0.36569947 0.90847337 0
-0.47753373 -0.61687618 0.10671014 0.23379041 -0.36067724 0.90291417 0
-0.90671015 -0.59264696 0.19868392 0.14820802 -0.17369659 0.97358304 0
-0.84054273 -0.5589534 0.19398925 0.13388127 -0.14011538 0.98104209 0
-0.7495386 -0.5507558 0.18228902 0.14190651 -0.14614344 0.97903246 0
-0.65117383 -0.54942077 0.16690442 0.16801876 -0.17146359 0.97075737 0
-0.5496127 -0.5509544 0.14759263 0.19519423 -0.21643761 0.95658445 0
-0.45106611 -0.55011606 0.1250957 0.2425565 -0.28997663 0.92578608 0
-0.36745876 -0.52847624 0.10912701 0.2816481 -0.2702029 0.92068708 0
-0.81219107 -0.48132294 0.19822343 0.13644372 -0.089540094 0.98659301 0
-0.74985594 -0.45244527 0.19202195 0.13808349 -0.07925836 0.98724413 0
-0.65057373 -0.45215523 0.17764345 0.15088753 -0.074084423 0.985771 0
-0.5514248 -0.45261538 0.16147764 0.16787203 -0.070646718 0.98327416 0
-0.44948334 -0.45264736 0.14275107 0.19745831 -0.094257616 0.97576934 0
-0.35002607 -0.45108968 0.1199475 0.25126681 -0.13770995 0.95807147 0
-0.28361237 -0.42848447 0.10529348 0.29296914 -0.12917577 0.94735569 0
-0.72658283 -0.35752875 0.19573009 0.143461 -0.066747174 0.9874025 0
-0.65094894 -0.34823865 0.1850401 0.15263265 -0.064483218 0.98617703 0
-0.54994768 -0.3502723 0.16825996 0.1710088 -0.064542279 0.98315328 0
-0.448863 -0.35205895 0.14970933 0.1891384 -0.064405844 0.97983605 0
-0.34897086 -0.350245 0.12870246 0.22837217 -0.067787252 0.97121114 0
-0.27084291 -0.34461442 0.10896467 0.28096461 -0.072504051 0.95697546 0
-0.71026826 -0.27427697 0.19849229 0.14513379 -0.054889545 0.98788834 0
-0.64929676 -0.24855796 0.19073305 0.15125859 -0.052891549 0.98707819 0
-0.54858524 -0.25227582 0.1740707 0.16979533 -0.056196705 0.98387581 0
-0.45276198 -0.24914905 0.15694261 0.1866149 -0.058292754 0.98070222 0
-0.34871021 -0.25043803 0.13524483 0.22373313 -0.060722612 0.97275704 0
-0.26074749 -0.24652252 0.1127522 0.28555521 -0.061379403 0.95639467 0
-0.64323163 -0.1533718 0.19431145 0.14868923 -0.038891383 0.98811889 0
-0.55084074 -0.14909804 0.17968234 0.16628002 -0.041868422 0.98518932 0
-0.44690835 -0.15045549 0.16115387 0.18549196 -0.045224573 0.98160452 0
-0.35105368 -0.15104932 0.14137168 0.22178988 -0.047023147 0.97395992 0
-0.25194862 -0.14908692 0.11552149 0.29106089 -0.045834355 0.95560592 0
-0.19899647 -0.10887094 0.10010019 0.3423939 -0.037600737 0.93880385 0
-0.63234031 -0.050776217 0.19543031 0.14604706 -0.012382299 0.98920017 0
-0.55167085 -0.048516907 0.18271101 0.16343383 -0.013282614 0.98646492 0
-0.4495295 -0.052447319 0.16481063 0.18248557 -0.016162721 0.98307574 0
-0.3510384 -0.051018819 0.14481413 0.22111571 -0.017319096 0.97509372 0
-0.25003123 -0.048909914 0.1183373 0.29118282 -0.017103054 0.95651454 0
-0.19667289 -0.040777203 0.10110862 0.34553954 -0.014420967 0.93829334 0
-0.63292676 0.051291101 0.19550893 0.14586465 0.01238472 0.989227 0
-0.55099195 0.049138296 0.18258208 0.16357602 0.013637877 0.98643643 0
-0.44971728 0.051748484 0.1648654 0.18227756 0.016208075 0.98311353 0
-0.35255295 0.052528493 0.14514166 0.21975684 0.017912054 0.9753902 0
-0.25081593 0.048917096 0.1185258 0.29154229 0.017222624 0.9564029 0
-0.19722036 0.043223493 0.10122546 0.34547862 0.016314464 0.93828481 0
-0.64042854 0.15496153 0.19383374 0.14916542 0.039482996 0.98802364 0
-0.54961348 0.15151899 0.17937361 0.16661027 0.042494785 0.98510671 0
-0.44898641 0.14853778 0.16162881 0.1850321 0.044589091 0.98172033 0
-0.34989998 0.14979188 0.14118616 0.22198519 0.046938054 0.97391957 0
-0.25213015 0.15061465 0.11549209 0.29146355 0.046561141 0.95544815 0
-0.19928032 0.11153593 0.10013262 0.34250435 0.039102249 0.93870217 0
-0.71010005 0.2734105 0.19851512 0.14505905 0.054466803 0.98792273 0
-0.64999419 0.2491776 0.19079307 0.15144303 0.053105872 0.98703831 0
-0.54990065 0.25096473 0.17436929 0.16985005 0.056132745 0.98386997 0
-0.44931501 0.24981996 0.15624948 0.18731935 0.058491237 0.98055613 0
-0.35059771 0.25003251 0.13570178 0.22206447 0.060629703 0.97314519 0
-0.26006526 0.25018427 0.11231181 0.28540209 0.061837904 0.95641083 0
-0.72758865 0.35869849 0.19580512 0.143493 0.066942409 0.98738462 0
-0.65085649 0.34865788 0.18499891 0.1526846 0.064505816 0.98616755 0
-0.54952765 0.3490366 0.16827291 0.17102346 0.064367697 0.98316211 0
-0.45122641 0.34875673 0.15036668 0.18841496 0.064340405 0.97997963 0
-0.34944174 0.34825727 0.12894703 0.22769964 0.067568384 0.97138423 0
-0.26996559 0.34815353 0.10843761 0.28194115 0.072681755 0.9566747 0
-0.81483722 0.48388085 0.198357 0.13660257 0.08984901 0.98654294 0
-0.74793649 0.45384771 0.19165175 0.13823719 0.079342477 0.987216 0
-0.65005988 0.4513261 0.1776284 0.15138336 0.074022435 0.98569959 0
-0.54904258 0.450427 0.16122542 0.16849273 0.070256136 0.98319596 0
-0.4506031 0.45011985 0.14321807 0.19513206 0.088496871 0.97677624 0
-0.35067388 0.44852182 0.12050252 0.24997357 0.13144967 0.9592883 0
-0.28421462 0.42776594 0.10560737 0.29244456 0.12908985 0.94752944 0
-0.90894145 0.59303665 0.19895625 0.14806773 0.16930719 0.97437727 0
-0.84185797 0.55988342 0.19410354 0.1337578 0.13987969 0.98109251 0
-0.7491523 0.55178946 0.18204845 0.14270449 0.14990963 0.97834682 0
-0.65183932 0.55061859 0.16687107 0.16750504 0.17206217 0.97074026 0
-0.55112356 0.55287534 0.14747615 0.19446705 0.2150033 0.95705605 0
-0.45104107 0.54803449 0.12574929 0.24099387 0.28245318 0.92851609 0
-0.36917043 0.52864999 0.10974178 0.27930391 0.26409581 0.92316997 0
-1.1047004 0.69864082 0.19849455 0.13572092 0.3162401 0.93892074 0
-1.0385172 0.68085057 0.19445688 0.13855778 0.29566807 0.94518888 0
-0.9449442 0.66050732 0.18549044 0.15339945 0.36078554 0.91994703 0
-0.85175335 0.65363747 0.17131937 0.15748322 0.3892481 0.90757096 0
-0.75240034 0.6514982 0.15435493 0.17089716 0.39135689 0.90423113 0
-0.64908087 0.64972043 0.1343189 0.19090982 0.37598962 0.9067443 0
-0.55637836 0.64306259 0.11650345 0.20167306 0.3625029 0.90990084 0
-0.47646934 0.61681402 0.10643023 0.23388213 0.35890374 0.90359682 0
-1.226072 0.75177538 0.18659249 -0.011816957 0.86456072 0.50238949 0
-1.1443647 0.74753624 0.1744689 0.13352251 0.62106842 0.77229899 0
-1.0507458 0.74606127 0.15895402 0.14227231 0.55968666 0.81640029 0
-0.95013171 0.74837601 0.14160717 0.12986529 0.48403129 0.86536044 0
-0.85216528 0.74511647 0.12953754 0.121738 0.38034356 0.91679806 0
-0.7501874 0.74456728 0.11660083 0.12949978 0.3118951 0.94124985 0
-0.65908587 0.73097128 0.1072679 0.13962294 0.22843973 0.96349406 0
-0.5905084 0.70697987 0.10249761 0.15032984 0.22546788 0.96258259 0
-1.3134038 -0.71368265 0.22760551 -0.22800928 -0.564762 0.79313028 0
-1.2496986 -0.72171986 0.21262708 0.13417506 -0.47963932 0.86714655 0
-1.167199 -0.70984453 0.20390612 0.14590865 -0.3560369 0.92301053 0
-1.3059287 -0.68855512 0.23180081 -0.42713472 0.19453889 0.88301224 0
-1.2468038 -0.65367532 0.23300436 0.011752913 -0.13701265 0.99049962 0
-1.1510506 -0.65075755 0.21990497 0.14644723 -0.24439782 0.95855248 0
-1.056185 -0.63596976 0.21011938 0.14097546 -0.23393552 0.96197718 0
-0.97128296 -0.61394739 0.20355071 0.14804906 -0.25176781 0.95639658 0
-1.2206372 -0.55441886 0.2421817 -0.34673271 0.089741901 0.93366092 0
-1.1502402 -0.54862529 0.23805675 0.1453196 -0.13835953 0.9796626 0
-1.0507523 -0.54960555 0.22374958 0.13587402 -0.13093726 0.98203552 0
-0.95020998 -0.54880911 0.2101485 0.1337036 -0.11882418 0.983872 0
-0.87998766 -0.52995747 0.20274854 0.13333613 -0.10286985 0.98571765 0
-1.2049463 -0.48328924 0.23984723 -0.70114815 0.19250338 0.68653744 0
-1.1539978 -0.45067507 0.24735419 -0.036146138 -0.040564656 0.99852288 0
-1.0488737 -0.4498772 0.23474029 0.13824926 -0.090272553 0.98627478 0
-0.95185739 -0.45012814 0.22099997 0.14181772 -0.092365153 0.98557419 0
-0.85119754 -0.4461911 0.20679337 0.14088728 -0.086950101 0.98619998 0
-0.79011142 -0.41422534 0.20079133 0.13914533 -0.075487107 0.9873907 0
-1.1459509 -0.35223204 0.25039697 -0.19420394 0.0062416117 0.9809413 0
-1.050529 -0.35066804 0.24248829 0.13615389 -0.061824493 0.98875672 0
-0.9500466 -0.35061941 0.22860269 0.13926275 -0.065207668 0.98810625 0
-0.84928071 -0.34762427 0.21424074 0.14427505 -0.067096099 0.98726028 0
-0.77288014 -0.34239075 0.20346138 0.14336474 -0.065956749 0.98746967 0
-1.1388049 -0.25233969 0.25177789 -0.2832092 0.02102107 0.95882779 0
-1.0493125 -0.25076085 0.24773769 0.13646078 -0.046153113 0.98956978 0
-0.95257527 -0.24973351 0.23454449 0.13598825 -0.045962624 0.98964369 0
-0.85061073 -0.25372368 0.21998753 0.14247678 -0.049699336 0.98854959 0
-0.75467724 -0.24747214 0.20639676 0.14403413 -0.051152855 0.98824978 0
-0.69853991 -0.20991163 0.20012563 0.14502965 -0.048286799 0.98824835 0
-1.132754 -0.14941932 0.25217012 -0.4366532 0.033267003 0.89901459 0
-1.0492835 -0.15317827 0.25144646 0.13804305 -0.029775277 0.98997855 0
-0.94978648 -0.15179726 0.2378048 0.13570814 -0.027250051 0.99037403 0
-0.84933251 -0.14745979 0.2240112 0.13869642 -0.027968992 0.98993993 0
-0.7492103 -0.14918375 0.20982142 0.1409204 -0.032589804 0.98948431 0
-0.68954778 -0.13525203 0.20180041 0.14175129 -0.032245744 0.98937696 0
-1.1294888 -0.051138829 0.2514962 -0.46471795 0.013047924 0.88536263 0
-1.0495802 -0.050200015 0.25348985 0.14047401 -0.0087462775 0.99004573 0
-0.9507972 -0.051360048 0.23973668 0.13685301 -0.0080698822 0.99055845 0
-0.84994453 -0.048555281 0.22583097 0.1366519 -0.0079766307 0.99058706 0
-0.74959165 -0.049024791 0.211963 0.13726975 -0.0095767276 0.99048746 0
-0.68116426 -0.046034995 0.20248592 0.13877624 -0.010073743 0.99027252 0
-1.1302774 0.049404744 0.25105104 -0.47613654 -0.012931082 0.87927628 0
-1.049935 0.05108073 0.25353578 0.14064604 0.0087196445 0.99002159 0
-0.94944543 0.049813166 0.23956415 0.13687971 0.0081240581 0.99055439 0
-0.85162449 0.049988974 0.22605681 0.13664564 0.0079185618 0.99058843 0
-0.75084716 0.051267024 0.21211921 0.1372858 0.0098599782 0.99048245 0
-0.68157107 0.047841102 0.20252211 0.138854 0.010106591 0.99026132 0
-1.1330808 0.15301174 0.25186121 -0.40172204 -0.029823584 0.91527593 0
-1.0520895 0.1492444 0.25195038 0.13858369 0.029196586 0.98992026 0
-0.94946092 0.15065584 0.2377957 0.13578796 0.027171811 0.99036521 0
-0.85188425 0.15171121 0.22423707 0.13875131 0.02874024 0.98991007 0
-0.74776179 0.15043712 0.20957188 0.14098158 0.03273613 0.98947078 0
-0.68862486 0.13547789 0.20164876 0.14182231 0.031982966 0.98937535 0
-1.1407204 0.25086892 0.2511777 -0.33737218 -0.030685529 0.94087112 0
-1.0504525 0.25011402 0.24793036 0.13657294 0.045712378 0.98957479 0
-0.94887233 0.25073084 0.23399054 0.1361955 0.04628662 0.98960006 0
-0.84934062 0.24947846 0.22001798 0.14234044 0.048803505 0.9886139 0
-0.75608331 0.24829258 0.20656954 0.14400668 0.05125837 0.98824829 0
-0.69682926 0.20549752 0.20009024 0.14502962 0.048286408 0.98824841 0
-1.1480342 0.35207438 0.25005963 -0.22199167 -0.011980688 0.97497499 0
-1.0501047 0.35089335 0.24240802 0.13601835 0.061731137 0.98878127 0
-0.94909465 0.35048273 0.2284832 0.13924919 0.065222859 0.98810709 0
-0.84933281 0.35097885 0.21401767 0.14422877 0.067782246 0.98722017 0
-0.7730934 0.34222236 0.20350479 0.14350581 0.065858208 0.98745573 0
-1.2047919 0.47863939 0.23938045 -0.63284433 -0.16807185 0.75581747 0
-1.1541294 0.44868091 0.24719149 -0.048959658 0.037220728 0.99810696 0
-1.0506384 0.44998395 0.23497808 0.13874111 0.091378063 0.98610395 0
-0.95022994 0.45147532 0.22063766 0.14195301 0.092909843 0.98550344 0
-0.85752976 0.44492835 0.20782037 0.14164951 0.087192416 0.98606938 0
-0.79092383 0.41280711 0.20101623 0.13888662 0.074677952 0.98748863 0
-1.2202576 0.55340922 0.24260777 -0.38093781 -0.10001033 0.91917592 0
-1.1490207 0.55042791 0.2376392 0.14415245 0.13818084 0.97986031 0
-1.0504336 0.54762268 0.22396058 0.13606882 0.12976845 0.98216367 0
-0.95249182 0.54886049 0.21045764 0.13359028 0.11847389 0.98392963 0
-0.87887633 0.52603126 0.20301619 0.13378102 0.10163606 0.98578531 0
-1.3084019 0.69035077 0.23057561 -0.71160841 -0.44484797 0.54380494 0
-1.245065 0.65272117 0.23303491 0.054559261 0.16275796 0.98515642 0
-1.1512043 0.64849722 0.22047292 0.14558141 0.23890728 0.96006739 0
-1.0565726 0.6360327 0.21009907 0.14172988 0.23764147 0.96095741 0
-0.97427261 0.61424434 0.20386796 0.14582129 0.24079329 0.95955968 0
-1.3142728 0.71311992 0.22779791 -0.2696065 0.54017597 0.79719651 0
-1.2528397 0.7212795 0.21351492 0.15118919 0.46019131 0.87485194 0
-1.1745913 0.71105844 0.20460747 0.14736363 0.36489916 0.91931099 0
